ply
format ascii 1.0
element vertex 433
property float x
property float y
property float z
end_header
-8.457695 -2.301307 3.858898
-0.924182 4.163425 -0.634634
0.255951 3.399521 -0.214046
-8.836350 -1.094655 0.507367
-28.366354 10.342849 27.597927
-8.239723 -2.111457 3.358783
1.103186 2.504169 0.648951
15.917263 -2.011172 -12.585569
-5.816414 0.554566 -1.775858
-8.046046 -2.180978 4.989292
0.722034 3.456398 1.678050
-20.754689 12.072291 22.496495
-0.251855 3.246041 0.501016
-5.363039 3.410567 1.048764
-8.655903 0.493633 7.860476
0.414132 3.258481 1.826796
-5.135382 5.247107 7.268641
-0.146185 3.933404 -0.400909
-41.550004 20.034357 42.691457
0.156452 3.564523 -0.328078
-0.088538 3.358653 0.184081
0.343453 3.214580 0.536925
0.684811 3.037083 -0.520736
0.442867 3.187733 1.770174
-15.009488 9.943586 17.217391
-8.638097 0.505735 7.845499
-6.501853 -0.436751 -0.069163
1.542035 2.065199 0.808497
-4.093824 4.076700 -1.153512
0.262971 3.265467 0.441013
-7.465780 -1.636015 3.665840
1.463308 2.213120 0.478454
-8.116451 -1.115737 1.413454
0.418209 3.256907 1.842906
1.245349 2.507655 0.755356
-0.160589 3.047251 2.219142
-2.649890 1.831841 3.789077
0.257018 3.465347 -0.287396
1.354731 2.679557 1.424144
-5.285852 1.194327 5.532229
-5.662325 3.440081 6.895745
0.108100 3.272925 0.467549
-7.815645 -0.831473 0.394412
0.808583 3.350411 1.361870
0.603570 3.091981 -0.456769
11.514991 -2.891748 -9.485435
0.448941 3.093233 0.295725
9.751290 -0.627012 -5.227772
-10.709284 -1.904064 8.298583
-8.647902 0.945052 -2.309472
-8.010987 -1.917025 2.909439
-1.024679 4.285727 -0.660622
-1.063621 4.469387 -0.646194
-7.583546 -1.913928 4.584188
0.186024 3.572928 -0.442286
-8.916426 -1.932265 1.632504
0.068784 3.225409 0.572848
-3.657163 3.446433 -1.101130
-7.871816 0.859931 -2.137490
-3.151152 1.247917 3.922519
0.086678 3.184924 0.682386
-8.618183 -2.728152 6.320393
-7.195108 -0.782863 0.851251
-6.827002 -0.595518 0.343663
-7.688217 4.913527 1.666964
1.176730 2.407603 1.018935
-8.581607 7.490796 -1.608240
0.121726 3.168420 1.450751
0.530474 3.018533 0.320694
0.386656 3.185613 0.597281
-8.547501 -1.304058 6.952506
0.715501 3.445178 1.389214
0.058901 3.225439 0.572734
-9.171370 7.420077 -1.436236
-0.075685 3.078694 0.880801
-8.635190 -2.653717 6.261811
0.172690 3.087482 0.977259
-9.502049 -2.473521 6.498044
-5.377320 3.391789 1.040807
1.073135 2.475842 0.799756
-1.677438 5.247348 -0.534666
0.132878 3.268574 0.468080
-4.581998 1.954785 -1.319685
-4.038029 1.543543 3.658897
-1245.516167 746.826362 67.246139
-6.542833 2.810574 1.020331
-2.600155 3.341826 0.110351
-3.500321 3.865225 -1.093763
-5.915588 1.637735 2.136679
-4.004046 3.418639 4.376176
-9.216313 4.074076 2.242566
-2.050774 3.143383 3.039749
-1.371745 2.837589 0.481306
-1.842537 3.732733 1.027913
-5.658639 -0.069158 1.403814
-5.491363 -0.308670 2.588638
-0.437413 3.621687 1.709167
-5.280900 2.605267 -0.211783
-10.006280 7.190040 -2.734849
-2.898398 4.252357 4.057591
-3.470615 4.304709 -1.047583
-14.285961 3.393086 3.471811
-3.838534 3.538911 3.509647
-1.131473 2.636029 0.201685
-0.564590 2.956388 0.937619
-3.447907 2.584840 3.727129
-705.981024 323.035723 539.786971
-6.222130 1.838262 -0.349320
-1.879467 2.685440 0.932922
-4.086393 4.694804 -1.241614
-1.341057 3.993721 -0.518745
-5.331793 2.701099 -1.484293
-5.390295 4.993813 5.763954
-1.478125 3.033070 2.817366
-7.583693 4.108513 2.311248
-0.723234 3.109615 1.508164
49.022147 -17.134985 -18.024376
-1.907264 2.759134 2.943808
-3.943191 2.188673 0.445560
-1.908744 3.347989 -0.661790
-1.315014 2.805163 -0.385507
-6.361111 0.209003 4.350585
-3.546242 3.730317 0.254348
-1.006791 4.050369 2.910612
-34.303100 15.792846 13.578835
-0.601879 3.663440 1.233291
-0.887390 3.725867 0.278491
-5.069793 3.787009 5.149181
-2.929069 4.639880 -0.263461
-0.757091 3.786197 0.368090
-4.117655 0.493791 3.062092
-5.679670 -0.551215 3.339947
-6.866126 4.121101 -0.810448
-1.612107 3.795458 -0.594313
-7.455037 2.427345 0.141528
-5.623188 -0.160244 1.242690
-3.129963 1.670758 2.239752
-5.002167 2.098525 -1.439962
-1.056825 3.391240 0.149031
-1.172586 2.828012 2.555042
-7.480652 2.441343 0.248953
-4.878079 4.779138 5.444318
-4.475078 2.154466 -0.237139
-2.281396 3.830979 -0.749738
-0.926656 3.043330 0.277148
-0.988225 3.804983 0.775147
-1.536490 2.495329 2.581351
-3.088113 4.313457 0.211961
-1.107178 3.613241 2.825361
-5.671018 -0.436644 2.835442
-0.691218 3.079910 1.469753
-1.076507 3.874774 0.462107
-1.390642 2.320086 2.490324
-1.186346 3.264415 1.362942
-3.572460 3.993337 1.591174
-1.096557 3.016109 -0.348921
-0.675881 3.708218 0.644767
-5.439133 0.704679 2.771865
-2.860970 2.416679 -0.153618
-7.167728 4.313431 1.274812
-3.046991 1.413486 2.100160
-5.569879 -0.300415 2.273051
-0.758835 3.760533 0.560551
-3.398002 3.937935 -0.257383
-7.650009 0.803333 0.570954
-1.195529 2.620569 1.001478
-1.203854 3.268826 -0.222720
-0.618967 3.663946 0.624971
-1.648186 2.443346 0.922949
-1.425740 3.568761 0.077835
-5.061735 0.270101 3.715882
-102.309838 42.374133 -25.771194
-3.842107 4.827259 -0.858449
-1.710198 3.815850 -0.536538
-4.330533 0.728059 3.417861
-0.670136 3.738354 1.712985
-1.564766 2.652932 1.350772
-7.462786 5.675016 -0.854099
-1.182755 3.411508 0.882233
-2.923539 2.227822 0.110914
-1.350184 3.156548 1.431679
-3.355592 3.628858 1.255435
-1.677171 2.495385 0.789877
-2.833535 1.433783 2.030648
-0.991000 3.927285 0.271557
-4.764556 2.019831 -1.354362
-40.964686 28.498621 -10.403029
-2.453707 1.980337 0.143444
-5.745148 3.233972 -0.619748
-21.382786 10.943387 0.251480
-13.461556 3.512586 4.283146
-6.346361 2.589166 -0.671838
-28.503861 16.861416 3.563237
-4.045877 1.430302 3.300024
-0.592462 3.703995 0.397230
-4.902659 5.952144 0.494184
-21.090254 8.974804 7.526338
-3.725326 1.950893 0.659708
-2.591150 2.905050 1.078002
-8.751763 3.430771 -0.909198
-2.194320 4.570229 1.476913
-1.213976 3.885549 0.669713
-3.426986 3.876869 0.097339
-5.334348 2.528662 0.060181
-1.273085 3.128293 1.220625
-6.909540 2.663629 -0.598990
-1.060194 3.160015 -0.468807
-6.114886 5.740029 0.619370
-98.925309 36.758410 1.119467
-1.531309 3.779009 0.989089
-0.687986 3.700421 1.470818
-5.673871 -0.468104 2.849740
-1.657708 3.953255 -0.592050
-5.627568 3.022137 -0.133815
-0.824228 3.242471 0.526587
-21.132221 3.618796 5.688293
-5.454084 3.120686 0.613305
-0.942373 2.899012 0.444934
-3.460495 2.133149 -1.057190
-5.092598 0.255484 2.719088
-5.524485 -0.279176 2.216197
-11.927990 2.183128 -0.790988
-5.650721 -0.025442 0.246358
-0.428128 3.710482 -0.061517
-1.479458 3.971700 0.404190
-1.284243 3.888362 0.642700
-1.743343 3.226132 0.222045
-3.543094 1.977875 -1.081187
-2.593825 2.988782 -0.309925
-2.906959 3.704423 0.201499
-0.870387 3.628806 0.643322
-5.381132 3.146087 0.946549
39.295898 -20.431143 -1.312200
-1.416418 3.849200 0.679461
-0.899968 3.919636 0.086243
-2.358133 4.060707 1.511280
-4.894190 1.020506 3.667392
-5.227176 2.717169 0.426986
-3.717246 1.274341 0.392700
-0.199504 3.053301 1.602152
-96.156814 48.386442 -21.428349
-0.852585 3.720528 1.382527
-2.718188 2.896229 0.446860
-8.545238 4.672202 -1.720771
-4.917003 0.352999 3.628286
49.877143 -18.068270 3.523802
-5.170130 0.196961 1.559834
-3.662690 2.098597 -0.092186
-3.471399 3.039604 0.707353
-4.095543 1.736652 2.029112
-1.320775 3.896723 -0.533718
-1.837134 2.763655 -0.157406
-2.807034 3.195898 -0.791880
-5.372581 0.342524 -0.201125
-2.346187 3.563557 0.455040
-1.989686 2.216144 0.373900
-2.764790 4.183905 -0.648070
-0.852901 3.870358 0.112732
-3.839527 3.612346 -0.389215
-33.349535 15.760533 1.346671
-1.702752 2.491188 1.618622
-2.528795 4.403884 0.436065
32.770583 -13.947104 -1.090083
-3.879575 5.454368 0.133168
-2.222833 3.248025 0.142629
-11.675889 7.122419 0.936626
-1.106220 3.258776 0.260462
-3.400673 4.033243 1.008648
21.794932 -10.035536 -1.107298
-1.441006 3.331307 0.573160
-3.547114 1.969771 -1.078300
-0.204559 3.095741 1.832414
-3.913501 4.262956 -0.098682
-2.147498 4.353760 0.298725
-3.935902 5.540043 -0.121098
-3.135930 3.473608 1.258554
-1.247359 3.650343 -0.129787
-5.487694 0.302419 -1.133082
-2.461657 2.285492 0.590620
-1.080090 3.004231 0.064096
-35.347676 23.620496 15.030734
-4.194412 2.029357 -0.818898
-1.869558 3.138726 -0.266672
-20.181036 7.224897 -2.606979
-4.603832 2.387340 -0.022067
-1.361813 3.889419 -0.287446
-1.723404 2.601000 0.802405
-5.300387 3.069403 1.383339
-4.228463 1.141158 -1.120006
-0.941078 3.776791 0.562641
-0.959485 3.491544 -0.036693
-6.482395 4.183433 0.196129
-2.776024 3.193667 -0.781693
37.805623 -18.897384 -10.201704
-1.742854 3.944182 -0.588141
-2.871107 3.994627 0.232508
-3.091100 4.485809 -0.393517
-5.314671 3.069540 1.170492
-1.448564 3.517788 0.805513
-4.784706 1.932298 -1.348418
-2.804277 4.001230 0.036440
-5.267556 1.550546 0.138062
-1.369451 2.443562 2.527247
-41.246440 20.694285 -1.551130
-1.151577 3.824780 0.389508
-9.668313 7.126085 -0.799257
-5.312978 3.075884 1.161837
-6.068352 1.052612 1.402262
-1.413553 3.731298 0.453893
-8.639618 7.013559 -0.841454
-2.893840 3.977739 0.260049
-4.980640 2.874638 -0.703552
-205.357704 64.887201 125.918608
-2496.451627 1354.692494 1478.428809
-3.111294 3.934793 0.349321
-5.003144 3.497013 -0.130338
-0.923999 3.088962 1.828236
-2.379255 3.914652 0.460216
-5.540103 -0.495405 3.360408
-5.368740 3.164032 0.821766
-4.267760 3.089161 -0.189885
-1.929839 2.567215 0.680157
-4.457515 1.458418 -0.673529
-3.186581 4.281931 2.848473
-5.687753 -0.590312 3.702498
-4.653308 4.148744 -0.291407
-1.428861 3.367677 -0.527866
-12.111750 6.815343 0.175123
-5.374936 2.173056 -0.226068
-4.112037 0.534060 3.275428
-5.602200 -0.099792 0.979694
-2.152157 3.687374 0.105281
-0.339715 3.002625 1.502699
-5.766459 0.126276 1.696175
-5.437268 3.113850 0.607549
-2.851016 2.463726 -0.303762
-1.105128 3.855356 0.949508
-5.214184 3.278139 -0.267035
-0.901519 3.889948 2.210080
-3.050888 4.154629 -0.687586
-5.277240 3.383709 1.017854
-2.076894 1.953600 1.956833
-4.398402 1.886462 -0.456583
-3.577980 1.831940 -0.987400
-3.562860 4.698630 0.263117
-24.213825 7.469896 0.674543
-4.299417 1.838198 -0.148452
-1.938795 4.463768 0.077285
-1.249766 3.261572 -0.276407
-4.279258 1.596181 1.006862
-3.888998 3.407594 0.680751
-2.476802 4.054937 -0.089662
-37.321885 22.082929 -7.583141
-2.572854 3.984258 3.213310
-2.857945 3.485455 -0.615721
-2.404543 4.043473 0.332371
-8.601649 3.970993 0.304489
18.672358 -7.901155 -4.282675
-46.200550 24.789817 8.694975
-4.406658 1.875613 -0.457308
-2.963220 3.106473 0.444787
-1.362772 3.340542 -0.444510
-6.145309 3.012366 -0.533605
-1.884034 2.618433 0.071067
0.114233 -1.168306 -0.046817
-2.258252 7.961093 -0.679466
3.770443 -4.568206 -2.239441
11.358935 -6.793760 0.084658
-2.903382 -0.551527 0.391392
-2.192224 9.128358 0.764705
-0.804565 8.508186 8.061850
-0.993569 -1.429870 1.048861
5.159220 -8.397755 -7.074910
-29.505265 50.418350 -4.819298
-21.213861 37.461413 -3.735848
-6.896918 0.727490 -1.605442
-0.857984 -1.363176 0.326944
3.490870 -3.586591 -3.175463
3.814309 -3.696883 -4.199943
-3.902125 -0.062085 4.275109
-4.024095 0.342978 -1.446824
-23.234160 9.905642 26.354622
6.725461 -3.295983 -6.177425
5.630401 -4.300669 -6.022707
14.174813 -4.054887 -1.929602
-6.690128 0.790440 -1.595295
-1.447594 -1.320078 0.695271
6.598834 -6.963757 -6.241932
5.408707 -6.304467 -2.879174
4.593313 -4.912059 -2.590601
10.542106 -5.150608 -10.453874
4.153795 -4.388871 -2.570055
-1.411792 -1.373581 0.939760
10.148560 -2.740662 -3.638059
5.697612 -2.068378 -2.570562
5.855790 -6.382004 -2.903291
-1.474727 -1.282716 1.516392
-1.107332 3.345185 4.642974
-2.883580 2.868290 5.606031
-4.767123 6.609203 2.948911
-4.983497 14.779083 15.465755
5.291949 -3.575223 -5.281549
-1.234303 -1.351694 0.658076
3.777851 -2.605698 -3.418041
-2.198581 -1.079240 0.423722
22.579999 -11.990846 -24.597401
19.873408 -10.816077 -3.123401
-1.116074 7.190886 2.765984
5.472926 -3.971853 -5.677904
-1.239539 -1.419846 0.969582
25.138419 -60.530307 -46.199214
-7.595625 -0.383314 2.294501
2.965888 -2.422844 -2.355801
5.543029 -7.167526 -2.893680
7.252530 -4.051651 -7.120373
5.330261 -6.475091 -3.033333
5.672546 -6.514757 -2.768341
5.895176 -7.252549 -2.686008
5.640905 -6.607076 -2.645798
5.195373 -5.986875 -3.083984
5.753027 -7.061253 -2.767668
-0.836086 -1.489713 0.881206
5.641959 -6.382747 -2.945429
5.662188 -6.506522 -2.778440
4.103277 -3.533595 -0.699167
3.022599 -3.461790 -2.204642
5.461056 -6.372195 -2.891311
5.221647 -6.390010 -3.157524
5.622353 -6.912092 -2.846724
5.712720 -7.007680 -2.839722
5.448771 -6.695709 -3.006530
5.630684 -6.923054 -2.862691
5.458303 -6.693337 -2.979134
