ply
format ascii 1.0
element vertex 238
property float x
property float y
property float z
end_header
-4.593755 2.972782 3.759430
-0.980941 3.545049 0.827148
-1.595917 3.402470 2.027059
-6.998292 1.268855 4.432497
11.780601 -5.396722 0.122407
-1.182205 3.810213 1.319902
-9.510677 -0.045014 5.355810
-1.530409 3.960555 1.125645
-8.778669 0.256342 1.690634
5.723646 0.762932 -3.536976
-9.447901 1.047418 -1.020061
10.654263 -0.203580 -8.166516
-2.531325 5.351288 0.591665
-4.306992 6.648158 -0.318663
-0.909466 3.597361 0.473844
-1.704389 4.216936 0.981376
-6.054894 4.378872 5.517423
-9.062226 0.022325 2.348411
-9.466462 -1.009852 4.668228
-0.897584 3.359848 1.525211
-8.000729 0.737468 0.574257
-36.699639 25.640315 -6.249980
-2.486164 4.621519 -0.150228
-3.509494 2.771700 2.939852
-274.590702 -8.182472 106.094107
-0.901416 3.401288 0.970375
-1.379097 3.569999 1.731359
-2.659020 3.576333 2.604353
-0.756839 3.120851 1.377554
-7.055177 3.975922 1.811053
-9.204588 5.543626 4.442010
-48.953466 27.517698 -9.096736
-1.628906 4.349811 0.412093
-1.321121 3.891861 1.094372
-5.249100 3.844692 -0.842728
-1.575076 4.052452 1.008959
-4.881659 2.751738 1.093383
-8.849684 3.705532 3.624331
-4.045807 6.334930 -0.028201
-13.826718 5.287949 -0.874781
-10.047666 1.378435 4.695387
-10.097066 5.612349 2.303808
66.061026 -29.797440 -22.666814
-56.485001 18.509096 26.334096
-2.159141 3.870932 2.253615
-8.327384 6.273265 5.508290
-2.740639 3.911574 0.610557
-7.799305 1.069229 3.491086
-3.140480 4.260559 1.414458
-4.190061 2.459887 2.806092
-3.029726 3.366022 0.273123
-2.396570 4.604030 1.209964
-3.856481 2.833588 1.645959
-10.195363 6.899903 5.612670
-8.787876 1.891011 4.467653
-5.714423 2.575282 2.809167
-3.039664 4.347436 1.006742
-18.744985 6.332749 4.765701
-14.851102 7.231060 8.823864
-36.265499 30.842575 -9.042314
-6.850628 1.230780 3.162911
-2.931376 4.428763 -0.060495
-7.486692 2.531016 0.418260
-3.000036 3.608800 0.601527
-7.650432 1.146619 3.502671
-2.547759 3.375229 1.778990
-6.782881 3.186659 4.356566
-11.378019 6.028744 2.377078
-5.732321 4.867801 5.001766
-12.737725 3.437520 4.100914
-12.773362 9.291469 6.381943
-3.432398 4.364892 2.641371
-6.720532 1.379322 1.658264
-7.785585 0.566344 1.936076
-3.053011 3.683247 2.594266
-10.591921 6.906830 4.423953
-9.792981 7.307430 4.222176
-2.920536 3.349151 2.825286
-4.970158 4.177982 2.161269
-7.830590 0.292836 3.029079
-11.665770 7.019945 8.867719
-7.394190 4.524623 0.299889
-8.223817 8.128254 -1.508046
-12.493663 9.532128 6.542670
-49.156531 21.487652 7.342645
-2.216445 4.674358 0.633963
-7.418154 0.914401 0.428074
-2.836832 4.300868 2.754644
-5.157189 4.940178 2.894613
-7.626115 0.636847 2.068579
-8.172896 1.203675 3.758809
-7.473513 0.999711 0.341833
-11.038869 11.395652 -2.191155
-23.549212 5.231562 12.254603
-3.349458 3.061546 1.700990
-2.738054 3.557433 0.540785
-2.538824 4.449768 1.553775
-9.224388 5.588345 2.266310
-7.870591 4.639701 0.504338
-267.410973 147.994102 7.076682
-2.865885 4.283533 2.973498
-4.749329 3.591359 3.093445
-4.168738 2.450550 2.122693
135.708753 -57.731238 -46.007786
-3.329871 4.506927 0.668029
-5.094930 2.253350 3.048947
-3.441956 3.151545 0.349248
-8.178784 2.824269 3.789138
-25.569979 10.615507 16.890437
-6.089184 2.854078 2.594051
-19.467061 11.330411 11.697688
-6.954507 2.122451 0.242526
89.187302 -29.972214 -58.224270
-4.526020 3.258364 1.873728
-6.254911 1.695075 3.232696
-5.676312 5.755250 2.908733
-4.100257 2.975917 1.214060
-3.433272 4.460867 2.566523
-22.215902 18.048400 2.325728
-5.306200 3.880146 0.901463
-7.267390 0.964136 3.004075
-6.128720 2.612205 0.122541
130.268069 -56.811652 -43.913075
-6.102663 4.892863 2.070053
-3.265453 4.418324 1.424829
-2.889671 3.454238 0.884812
-5.614077 1.893739 1.115914
-13.775943 7.940930 4.678795
-2.836539 4.299232 2.753572
-5.976005 6.616933 2.757365
-2.667977 3.565341 0.196034
-3.300541 5.004501 1.670268
-6.605195 4.475119 3.322021
-3.470796 4.268038 1.384906
-4.786188 2.881749 0.632600
-2.845940 4.233492 2.891731
18.381541 -8.350433 -10.631358
-3.228434 4.540254 0.752887
-11.659443 4.757129 0.421787
-15.959055 11.602610 -3.450912
-11.235351 4.784383 0.286459
-10.292988 5.536979 2.280379
2.071385 -2.808378 -3.941811
-6.233834 0.202488 2.483235
-4.091568 1.213051 -1.379479
1.914147 -2.631314 -3.512736
3.442687 -5.758489 -5.920285
-5.028893 0.172962 1.271189
-5.980131 2.674619 -1.713372
-5.903069 0.951020 -0.176772
2.050213 -3.057619 -2.751705
-11.571834 6.083415 -2.510841
-5.828817 -0.033859 1.438844
2.532857 -3.358343 -2.382545
-3.365120 1.671066 -0.975225
3.332079 -3.389882 -3.904178
-7.095887 3.045006 1.267964
-2.542731 7.418107 4.118606
-4.257577 1.309277 0.103044
-22.318786 25.920408 -3.189809
2.066571 -2.689906 -1.897101
-3.125680 2.003376 0.319170
9.058670 -12.641588 -10.725046
-19.146810 36.129827 14.338827
-2.625320 1.500927 -1.156958
-4.380811 13.385110 7.286549
-5.169836 0.982614 0.895127
-22.322934 8.965664 20.472037
2.480268 -4.310284 -3.432439
-2.603063 6.921278 1.334288
-8.284727 3.051377 -1.987865
-2.240168 5.953555 0.608157
-8.908444 0.916592 0.140829
-4.294527 2.377837 -0.505178
18.050379 -11.207263 -21.653691
-3.350318 0.529571 0.534026
2.930526 -4.602417 -3.832506
11.157392 -22.398302 -27.941234
-6.000449 1.030977 -0.158322
-13.012001 9.335927 -2.124406
-5.412794 -0.225001 1.574999
-3.539009 7.460632 -0.836568
-3.154951 0.449967 0.392463
4.864894 -6.793982 -9.990121
70.363986 -108.533116 5.139078
-4.054997 0.692433 0.582143
15.880121 -31.079713 -21.322972
-3.482651 1.913612 -0.911280
3.615045 -4.997908 -0.990423
-4.984628 1.223605 -0.675587
-4.855022 3.634849 5.337692
-6.265423 0.067471 1.427480
-5.991612 0.006899 1.416863
-5.461266 0.015493 0.984862
-6.279216 0.184665 1.212356
4.589051 -5.782146 -7.575236
-5.082614 -0.008972 0.727765
-2.998959 0.213852 0.387030
-4.389988 1.282867 -0.788370
2.022653 -2.733513 -2.177359
4.201996 -8.010697 -4.362701
-2.823289 7.399274 -0.404260
8.283482 -6.731458 -11.942065
4.008742 -3.265365 -6.178767
4.089155 -7.094130 -6.004584
-3.880668 8.334915 0.670672
-3.971948 0.411768 1.841598
-12.136347 8.181421 13.743658
-5.954964 0.211638 0.909951
15.225810 -31.637405 -11.211038
2.917521 -5.340449 -3.546511
-26.063510 45.934718 14.695313
-6.032476 0.723813 3.303321
-4.125693 11.962686 6.876533
-4.245001 1.809546 -0.868537
-5.028346 2.194827 2.038646
-5.440548 0.432360 2.685362
-3.400111 1.814638 -1.036073
-4.257163 1.669930 -0.972136
-3.238262 0.561087 1.552665
-19.556292 25.181213 6.321471
-3.360055 1.660345 -0.875686
-3.857342 11.015603 7.324363
-3.346833 1.663868 -0.886164
-3.363060 1.640094 -0.701601
-3.418886 4.053793 4.029744
-4.308872 1.659371 -0.901139
3.955954 -7.258729 -5.608057
-3.396366 1.465056 -1.026972
-5.685694 9.066858 1.259475
-3.100538 0.396979 0.211568
-3.402035 1.607634 -1.014832
-5.580243 -0.347593 2.046329
-5.090460 9.499143 1.405051
-5.456434 0.751760 2.818604
19.301520 -38.250195 -29.166313
-3.626349 2.219409 -0.730442
-5.462395 9.479016 1.380057
