ply
format ascii 1.0
element vertex 545
property float x
property float y
property float z
end_header
-0.896368 3.504526 0.813452
-27.196546 -3.664835 -6.646486
-17.994213 1.476479 -4.057774
-1.047581 3.171993 2.608470
-1.260252 4.306407 0.653062
-1.031970 2.249808 1.200854
-6.443452 0.581305 -0.475359
-1.388594 4.504344 2.963186
-2.613332 4.057199 2.360982
46.666462 -9.258168 -43.351244
-2.891911 3.296790 0.442820
-10.428900 4.846107 6.376273
-2.028285 5.015479 0.528112
-9.425536 7.185833 11.215057
-1.134639 2.143656 1.895759
8.863638 0.253430 -2.364645
-4.087316 1.541724 2.008228
-1.108502 3.555875 -0.386448
0.309461 3.030946 0.602091
-10.741299 3.170889 11.130594
-9.149508 3.688022 0.594605
-3.202469 2.574537 -1.339000
0.967592 2.716732 -0.646034
-1.149638 3.792984 0.837712
12.299140 3.697664 -8.121841
0.408135 2.948211 0.658345
-41.659135 -20.124439 7.106164
7.344243 2.070480 -5.160420
-3.892830 2.897960 5.129846
10.512239 3.456745 -7.467173
7.517806 1.090902 -1.835693
-0.492347 3.788092 0.088641
-10.009023 -1.946450 8.806752
-1.667244 2.458592 0.215284
-17.823362 3.179406 8.734253
-4.968290 3.860111 6.351487
-8.060921 3.382248 1.903181
106.153603 -52.743048 -109.858284
10.106115 -0.562514 -5.830158
0.364664 3.101363 0.621452
-4.845668 -0.147141 2.979897
-5.679076 0.621746 2.252486
15.256265 3.077648 -11.773015
-14.634943 -1.906058 -3.467235
-7.246760 2.542087 1.742610
5.098996 1.005530 -2.786485
53.798111 -25.204357 4.430161
-11.752207 12.295343 14.884017
-10.506599 5.858290 -2.080044
-1.184337 4.233239 2.406929
-11.901030 -4.427189 1.698824
-0.708770 2.874872 0.867099
-7.095254 8.807949 -0.413000
83.253788 -40.799509 -86.411470
-13.121603 -6.259030 10.141107
-4.948253 1.665327 -1.754346
-40.431886 -19.489686 6.882302
-3.815459 2.330524 -1.457939
-0.136014 3.171816 0.034998
-5.158373 0.993558 0.311284
-0.580166 3.806368 0.487544
-27.549466 -7.200955 22.563942
4.930637 0.773990 -2.163474
-10.701283 -2.258906 -0.006467
-1.970902 4.221184 -0.901072
21.207875 -5.350911 -10.293455
-0.131768 3.075964 -0.232662
-0.440255 2.788473 0.397874
-0.518742 3.810074 0.084362
0.449544 3.052352 1.194112
-1.961878 4.218227 -0.902050
-17.226864 -9.037399 9.986644
-12.683389 -3.574071 -1.763664
-13.069687 5.674976 2.992876
-2.563232 2.263283 -0.273517
-13.202678 -4.174840 -0.972707
-11.858215 -5.916750 6.096162
-10.611075 0.684495 -2.892203
27.216115 6.973064 -20.972653
-7.747186 4.450886 -1.806359
-1.755277 2.693421 3.095405
-0.323671 3.492332 2.021120
-2.480915 2.561223 -0.829579
-18.262277 -9.683100 8.714213
-20.685619 -11.452068 10.832110
-8.669373 -2.077514 6.047816
-320.664059 -119.109746 244.698838
-65.178307 48.807190 65.746194
107.674587 -53.314599 -111.676441
-11.959052 -5.655454 5.242171
6.095640 1.506808 -3.627826
59.172739 -37.414100 -64.131141
23.160991 7.489531 -17.156654
-0.341953 2.907517 0.449202
-0.128862 2.804829 0.686646
20.562272 -3.086001 -18.401741
26.218659 6.735691 -20.060584
8.418948 -0.455492 -6.956678
431.942386 203.795515 -307.394490
-3.629499 4.401863 -1.095800
-0.910505 3.285656 1.540147
-5.581967 2.892958 1.261038
-14.949754 -8.138297 8.794548
-1.114840 4.024369 1.317797
5.911574 0.856330 -4.338775
25.116610 -5.742666 -23.465009
-15.994867 -8.276436 7.675179
-22.827058 -12.630760 11.595425
32.589498 13.031505 -23.764395
-9.637409 -1.558652 5.281288
-2.053627 5.031241 0.534725
-10.528210 -2.738790 -1.742725
-0.541816 2.458958 1.312908
-9.588144 3.147737 0.877570
-6.865827 6.218505 -1.257299
4.789434 0.830799 -1.568608
-6.471873 -0.910501 5.980132
-7.218617 7.407893 8.908805
-8.329238 3.995732 0.710328
-0.659434 3.574862 0.907451
-13.307274 -1.022860 -0.778250
-1.031496 3.474183 2.627365
-2.166805 2.950875 0.512373
-7.970532 3.759357 1.501767
-21.368228 8.320808 9.925268
-0.095756 2.916498 1.670800
-0.004095 3.027341 0.310283
-14.514644 -1.727248 -0.778031
-7.844692 3.979403 1.278439
-5.006319 0.928737 0.691658
15.056814 -3.758768 0.926813
3.685095 0.740208 -0.563951
-1.033819 2.824318 -0.427088
-3.016490 2.288448 0.270678
-5.428305 -0.217574 1.206720
-10.768251 -3.223159 -1.162162
7.985077 1.437573 -2.862505
5.102997 0.518819 -0.954197
-4.782322 1.001528 -0.172151
-8.160419 3.799204 2.014022
0.564160 2.688532 0.524360
-4.108632 1.123621 -1.008995
-14.352599 -2.481112 2.017564
-0.941173 2.877291 -0.372770
-17.246213 -10.164495 12.230872
51.332579 -23.383833 -19.413908
-7.926254 4.009707 1.264592
-10.615963 -2.927188 -1.327183
7.246999 2.046586 -1.827107
-28.705146 -4.073747 -6.397115
-1.320173 2.534009 -0.178318
-13.589653 8.608524 1.023979
-1.463584 2.479115 -0.257554
-0.380446 2.469873 0.866166
-2.091592 2.499206 -0.444576
4.813444 0.505018 -1.685104
0.308802 3.290766 -0.561104
0.207824 2.927471 1.021388
-7.341419 4.795964 1.312102
9.946609 2.151170 -4.093290
-10.126264 5.777460 -1.759319
-7.040086 7.217874 0.862796
-38.811394 23.613402 14.640404
-3.953258 0.208224 1.081432
-62.010065 26.107198 45.692999
-1.643756 4.507540 3.426533
-3.727227 1.395696 2.797922
-1.551378 4.192377 0.269260
-1.380116 2.675338 2.263248
-4.698126 3.336369 1.382621
-5.801422 4.179984 -1.654125
-10.037370 6.247734 9.270812
-5.211225 4.205137 -1.498793
-2.367092 3.082798 -0.807066
-0.150905 4.124240 3.201422
-1.489293 2.172055 0.298470
-0.628927 3.100016 -0.039623
-9.589594 6.199589 5.625080
-2.069245 4.234321 -0.024274
-1.720214 2.589567 3.309932
-4.127668 0.675856 -0.167385
-1.059710 4.534152 4.472699
0.390219 3.266708 0.411120
-0.628995 3.224399 -0.326533
-4.710568 2.265877 1.675439
-4.282630 3.805840 1.425999
-39.040050 18.608005 18.543006
-3.545613 0.803153 2.276064
-4.250394 0.084167 1.990798
-5.071550 0.966496 3.894361
0.049028 3.337074 -0.163659
-2.531675 3.186363 2.131416
-7.508134 4.409963 6.873279
-16.861468 11.425170 11.244989
-0.039454 3.710805 1.891452
-4.134910 0.349902 1.539183
-12.147014 6.687428 10.544148
-1.686214 4.308837 4.529165
-5.207171 3.600716 -1.540250
0.789055 3.464598 1.468865
0.587886 3.266389 1.049260
-3.697990 2.147442 1.086944
-1.421405 2.627479 -0.061829
-2.958440 4.298230 4.939012
-7.555135 4.411040 7.018019
-15.499338 5.951815 11.397119
0.578852 3.302264 1.159848
-4.774139 5.725332 1.372697
-2.713148 4.072478 4.751481
-4.563446 2.940030 0.404631
-2.238713 4.008848 4.525818
-6.194239 3.477115 -1.783735
-1.383743 4.304357 3.280382
-1.269550 2.781516 1.575528
-3.525476 2.495161 0.731354
-1.533704 2.972188 -0.605569
-19.246845 6.501158 13.418515
-2.858066 1.154064 2.875814
-1.072689 2.855570 2.019277
-2.562893 0.906034 2.673006
-15.970580 5.899217 11.958606
-6.045673 2.932638 -0.377933
-3.932343 0.073371 1.853496
-6.171547 3.461366 -1.796412
-11.364304 6.982118 -2.967491
-27.074126 18.125118 7.557308
-10.370079 9.001191 -0.987428
-2.081367 3.081119 3.916239
-6.739603 4.232390 -0.246695
-4.333894 0.342138 0.771281
-1.635776 2.361760 2.503413
-4.603286 0.091064 1.249154
-6.926279 3.011226 5.925018
-6.031638 3.215887 -0.038691
-0.678246 3.204604 3.206483
-10.192135 4.373336 5.567223
-12.362158 9.016357 11.972996
-52.624478 21.176445 24.928275
-3.637834 1.361333 0.872121
-1.814884 1.686279 2.960253
-3.083643 2.627809 4.034616
-0.154016 3.727784 1.893929
-25.666280 16.082844 7.039199
-6.211034 4.697593 6.626529
-2.470360 4.691612 0.666618
-2.170120 2.255551 -0.062496
-0.634388 3.107789 1.142878
-8.694537 4.218903 -0.448000
-6.693381 2.486638 1.267676
-1.045366 4.485530 4.438903
-1.823406 3.142369 2.241486
-2.246707 2.316672 0.049066
-9.362973 5.146560 1.138539
-23.630179 10.907321 18.259037
-4.030605 1.445697 0.072704
-9.532265 3.393256 0.784576
-15.469013 11.494288 8.913922
-3.296773 1.730000 3.448571
-2.330091 3.132249 1.200519
-0.661602 2.949076 -0.149303
-0.408902 3.627810 -0.259095
-3.879300 3.026893 3.791457
0.789074 3.398327 1.975072
-2.371620 2.161390 0.857075
-11.454222 9.854878 -0.194822
-4.621922 4.342414 1.567431
3062.483237 -1590.274380 -1966.574355
0.167323 3.719910 2.013464
-0.926893 3.589839 0.287089
-4.308005 2.553634 4.344635
0.180362 3.490330 1.216738
0.143128 3.198480 -0.124059
-3.946702 0.089041 1.716331
-0.725255 3.167972 -0.379875
-4.285482 2.076418 2.795852
-2.248770 4.806402 -0.007374
-4.208976 0.630868 -0.144653
-0.782236 2.907968 3.298944
-12.450105 11.282874 -2.989840
-5.195288 3.776218 0.168719
-1.328050 2.298376 0.474190
-0.244561 3.395013 -0.207777
-4.562032 0.476507 3.200120
-5.025961 0.818474 3.809320
-0.085505 3.905284 1.772661
-0.092390 3.757988 2.088587
-11.535670 8.048272 2.862562
-3.847552 0.444028 2.699199
-3.177420 1.706705 1.046811
0.342455 3.339068 0.792817
-115.095041 67.270055 28.376102
-18.662888 11.198942 -0.584408
-0.299659 2.820456 3.026027
-7.724290 3.699753 1.191164
-12.980974 8.725581 3.473497
-56.884946 37.122190 -13.080005
-2.428728 4.432712 4.798259
-6.958093 7.463721 3.531541
-10.891848 8.540956 -0.366690
-0.126676 3.488753 -0.160913
-1.167283 2.783962 0.035399
-8.569989 5.082077 1.140031
-2.113723 2.993018 1.348618
-1.368855 3.934200 0.216105
-5.285825 -0.094609 1.163885
0.416960 3.247794 0.364840
-11.246443 4.150654 8.578163
-1.043175 3.594504 2.070806
-4.113570 1.300956 -0.430480
-4.398929 0.055248 2.126335
-0.876329 3.359980 2.353385
-0.698904 2.896284 3.249527
-4.137724 0.607579 -0.146870
-2.441392 2.060965 1.312699
-4.688210 3.560554 4.826499
-0.662504 3.701367 2.128441
-0.880150 3.353207 2.364867
-4.161419 -0.062706 2.109129
-4.227153 -0.135288 2.306119
-4.254116 -0.062347 2.956777
-5.122284 6.164999 0.180096
-4.876369 1.861839 4.291622
-2.273144 1.420605 2.216160
-3.098096 3.525163 1.921449
-4.632649 -0.148627 1.964812
-2.560527 2.222021 -0.904159
-0.616942 3.186808 1.542210
-0.934227 3.263023 2.168358
-1.814979 2.758043 1.371349
-196.732730 80.008903 141.019296
-3.463290 5.172714 5.726582
-4.375417 -0.038566 1.910930
-4.168050 -0.048418 2.118581
-4.784906 6.389724 0.215731
0.382259 3.274040 -0.073106
-41.518374 22.040809 17.900861
-3.772651 1.287713 1.798696
-2.568240 2.209884 -0.908848
-5.435794 0.040842 0.743503
-5.888260 3.090162 2.857365
-26.807572 16.844026 -2.514151
-3.678195 3.670999 1.642679
-34.609898 19.006017 5.931737
-2.560608 2.207053 -0.912947
-4.061132 0.359888 0.444969
-6.018227 3.933716 6.006239
-2.177058 4.528520 4.843277
-1.744204 4.385447 1.099499
-5.775491 6.730308 -0.002934
-0.648649 4.187895 3.281351
-2.587015 2.090546 -0.930342
-4.838655 1.044915 3.865394
0.429405 3.252636 0.085375
-7.968712 7.003713 4.786150
-5.038608 0.317901 1.260087
-3.299364 5.678802 3.005080
-1.028932 2.881229 1.902983
-2.402104 2.697155 1.412619
-0.676473 3.796034 0.004682
-1.352636 3.573423 -0.196844
-4.309994 -0.293287 2.809732
-3.348685 1.046907 0.763563
-3.209784 1.884617 1.993345
-1.933865 2.112157 2.172028
-2.580068 2.140337 -0.806042
0.101284 3.416952 1.642452
-4.260838 0.726731 -0.308129
-2.630529 6.002130 3.670948
-4.566544 3.583785 0.409453
-5.494367 3.729124 2.320669
-2.390614 1.997027 -0.002219
-4.257085 2.151152 -1.140307
-4.795617 6.387525 0.361019
-2.655123 1.932519 -0.731277
-3.223221 5.418777 0.138788
-18.573968 12.219124 -2.030356
-1.512514 2.314281 -0.300638
-1.351820 3.571382 -0.205854
-3.083387 1.954034 -0.283255
-0.923501 3.873243 0.079816
-2.394207 1.838146 0.013305
-1.549944 2.651270 -0.228658
-3.800624 5.131121 -0.108509
-3.057200 5.269605 3.138984
-4.939427 4.662112 2.596728
-5.101533 6.582808 4.608064
-5.856487 4.726313 3.698187
-1.664122 0.588717 0.164767
-1.261434 -1.467960 0.546347
-0.964848 0.938955 1.329601
-1.258398 4.679871 3.848059
-1.948300 0.335405 -0.858003
-1.150933 4.280067 2.383915
-0.410616 2.589376 -0.966585
83.913591 -57.153546 -47.878301
-1.014951 -0.233812 1.628926
0.372291 0.472101 -0.724041
-0.712079 0.530709 1.013427
-0.642468 -0.747618 1.093487
-3.529754 2.771994 -1.349687
-3.234998 4.226141 -0.432246
43.638616 -35.284320 0.448839
0.441266 1.998698 0.249163
-2.985200 3.006144 -1.323871
-0.539481 4.828510 4.543176
-0.906739 -1.548962 0.806377
-1.351451 1.374867 2.149878
0.402694 0.625529 -0.692528
-2.911314 0.382998 -1.347657
-7.350651 1.692168 3.879901
-7.792499 9.412120 0.133864
-0.995860 -1.189688 1.580974
-0.155941 0.736587 2.400242
-1.047679 2.624614 0.042631
-0.883564 -1.444080 1.364925
-1.410807 0.572032 -0.606551
0.285186 -0.768057 1.084038
-1.232640 -1.456805 0.516385
-2.362017 -1.459517 0.406399
-0.923387 1.817369 -1.138417
-3.251107 -0.658922 -1.172758
9.474018 -22.646714 -13.790888
15.888637 -12.721507 -8.160342
-1.460996 -0.883790 1.001263
-1.125420 0.085968 1.469821
-1.209029 0.804956 -0.154236
0.408997 2.795875 0.804601
13.411114 -10.234750 -4.529772
-0.376735 2.784838 2.535085
-1.557836 2.343853 -1.170717
-3.504642 1.051004 0.736904
455.867761 -499.412445 -145.122555
0.092550 0.893187 -1.251477
-0.173749 4.365526 0.365410
-6.464169 1.464515 3.393820
-0.805959 -1.540406 0.753218
-0.934795 -1.474113 1.410790
-2.239331 -0.835278 2.055840
-0.627098 5.213311 4.486306
-0.337275 -1.229294 1.027246
-3.188064 4.173499 -0.338544
-0.734703 1.186984 -1.271500
0.284338 -0.766321 1.087631
-0.625168 -1.605772 0.867663
-1.113030 1.166073 -1.277682
-0.089912 2.585823 3.695610
-0.570103 1.358011 3.087379
0.262590 3.257670 2.858274
55.668725 -40.093145 -7.217212
-24.562887 17.643710 15.864986
-2.419309 -0.658711 -0.956764
-7.101421 5.583335 -0.057738
-1.053563 -1.552105 0.809081
-133.066496 102.669247 159.567839
-0.862390 -1.271151 1.071098
-15.332692 11.906925 -2.892389
12.222351 -8.855761 -12.185042
-0.441934 -1.400087 0.153297
-2.315786 -0.828057 -0.919833
-0.322432 -1.039148 0.104073
-0.693543 4.296724 3.307427
0.349824 0.519126 -0.771051
31.798419 -24.099258 -21.229120
-0.575450 -1.654443 1.020438
-1.072238 -0.351282 1.319953
-0.545555 -1.539156 0.522379
-5.537135 4.179982 0.840556
-10.802868 8.437310 1.444734
-3.990219 5.784059 3.478016
-2.978632 6.611712 5.344466
-11.336768 15.411374 14.790127
-0.836886 0.284342 0.058883
0.034847 -0.652284 1.295202
-0.617967 -1.649146 1.046400
-7.015193 4.927679 0.689893
-1.163521 6.516174 4.806396
0.077594 -0.552803 1.345933
-0.125712 3.774237 4.513956
-0.689065 -1.441913 1.239924
-0.821135 -1.289585 0.027567
15.070973 -18.263631 -10.537668
8.515842 -6.176957 -8.084026
-0.021740 1.152375 1.641518
-0.592252 -1.645469 1.028020
-6.269699 5.291865 1.787763
-1.927457 0.657553 -0.563688
-3.905059 5.573810 2.581397
-2.503128 1.869505 0.754975
-4.564308 2.439854 2.425644
-5.671240 4.865740 0.034779
6.231244 -2.888827 -1.972157
17.591180 -12.702172 -6.844396
-2.401567 0.342872 -1.243968
-0.692665 -0.728721 1.651735
0.497933 0.081055 -1.153445
-0.632300 1.209619 2.987829
-0.629702 -1.641557 1.056845
-2.225098 1.266605 -1.029353
-7.321636 4.747434 1.188134
-10.887623 5.405758 3.461070
0.644403 -2.005895 -0.966717
-0.099817 -1.265100 0.153926
-1.598773 5.155219 3.976183
-0.701083 2.247699 3.779003
8.814366 -9.089289 -4.846310
-0.841997 3.856904 5.005454
-6.076188 -0.650106 -0.570176
-0.333108 2.315355 1.881214
11.541719 -10.101107 -12.608378
-0.512678 4.815534 4.497674
71.436938 -64.519752 -58.150348
-0.292052 -0.705845 0.728750
-0.279247 -0.993869 0.359486
-3.309762 3.891127 -0.794034
-2.014752 -1.102772 -0.272029
-7.084015 5.014430 0.665644
-5.859955 4.326583 -0.923411
0.659687 -2.002377 -0.958250
-5.654245 5.170668 -0.019359
-135.276368 377.251146 181.455725
-13.991697 19.303082 16.225956
0.020141 1.662110 1.735472
-11.189489 7.010113 -1.593716
-3.404505 5.208461 3.821321
-13.955629 19.224326 16.096163
-3.082827 4.787197 0.326240
-1.891025 -0.322260 -0.445594
-0.280681 -0.111757 1.847187
-5.959045 5.545184 0.597491
-1.419615 3.050182 2.654813
-3.038538 4.217635 -0.674014
-7.236787 4.743230 0.852069
-2.855015 -0.926666 -0.052597
-15.403222 11.995640 8.762462
54.801272 -38.406725 -21.687236
-6.028650 7.213804 5.101411
-8.769755 19.001542 7.107206
-5.455899 4.689087 -0.328055
63.436101 -60.523191 -10.619130
-8.853146 5.386150 4.930909
-7.213398 4.705654 0.861306
-5.253222 5.067656 5.747452
-5.270661 5.080175 5.764038
-0.370312 -0.252036 1.498494
-63.056770 37.681404 12.744336
