ply
format ascii 1.0
element vertex 82
property float x
property float y
property float z
end_header
-17.369374 13.951872 12.087103
-27.148292 28.200272 17.508860
-9.103947 4.651488 2.291402
-9.717605 5.069981 2.348861
-8.195430 4.643172 2.054527
-9.022375 3.487428 2.122547
-7.515999 3.078205 1.153111
-7.834543 3.397712 1.128230
-7.677209 4.514383 1.002359
-7.578977 3.760593 0.947835
-7.606084 4.982403 0.865933
-9.138329 3.262633 0.973245
-7.705492 5.266687 0.814069
-7.614658 5.312040 0.684450
-6.243714 5.523565 0.579736
-7.177047 4.871733 0.550820
-6.274928 4.328635 0.314450
-6.592918 4.824697 0.182506
-6.415637 3.495924 0.209257
-6.311493 4.449097 0.163863
-6.223461 4.957411 0.148130
-7.463443 2.433258 0.281741
-4.819481 4.735797 0.089581
-5.054295 4.800309 0.071049
-7.579734 2.543220 0.134486
-6.557501 3.765280 0.045114
-4.728591 4.674068 -0.047845
-8.659149 2.574901 0.033437
-8.053032 2.437414 -0.035819
-4.506786 0.808019 0.029415
-9.081161 2.783714 -0.141757
-8.695130 2.754111 -0.113965
-8.757541 2.897532 -0.106248
-8.728487 2.507348 -0.128570
-8.901044 2.787800 -0.238530
-5.834406 3.367794 -0.251371
-6.207450 3.390556 -0.312837
-7.260111 1.733059 -0.196537
-8.693416 2.736397 -0.341055
-6.365543 3.341163 -0.400066
-5.798947 3.256424 -0.557419
-4.224411 1.752747 -0.422953
-2.614024 2.059874 -0.597528
-2.884066 2.088216 -0.618694
-4.751422 -0.295283 -0.608100
-2.761625 2.239915 -0.687117
-4.503882 -0.017429 -0.707473
-4.560280 -0.133705 -0.781543
-6.225908 2.682786 -1.325910
-2.923300 2.052101 -0.864730
-4.713186 1.843237 2.024658
-6.090469 2.497394 2.969974
-5.751949 2.812197 3.132161
-6.236404 2.436391 2.386245
-3.159574 2.950543 2.035665
-1.082428 3.218170 0.920645
-5.239353 1.815260 1.975590
-1.994266 3.083778 1.005438
13.083384 -5.508594 -5.943827
-2.912905 2.644763 0.965984
-6.885982 1.439635 2.274547
-3.066223 2.491785 0.822765
13.673173 -7.060895 -6.250271
15.527604 -6.102570 -6.333391
-3.706606 2.229662 1.624591
-5.682280 1.249320 1.656932
-6.684042 3.678342 2.521199
-3.561485 2.145682 1.112864
-4.661799 2.225680 1.634906
-5.510359 2.846754 -0.019957
-2.690763 2.817228 0.897477
22.496403 -11.259550 -4.782975
-5.800134 4.708681 0.097604
-5.680147 5.540491 -0.160252
-59.390166 25.109942 4.220012
-4.809250 1.936916 -0.307338
-4.945577 4.824050 0.123901
-4.759755 4.773425 0.039371
34.265224 -21.739315 -0.415220
-5.617777 4.635465 -0.267392
-6.149541 3.255528 -0.446789
-53.846378 29.519011 -6.685571
