ply
format ascii 1.0
element vertex 68
property float x
property float y
property float z
end_header
0.360109 3.222023 1.705602
0.468309 3.243625 1.631114
-0.629334 3.785359 2.613421
0.830109 2.800296 1.145187
-8.482542 1.455512 7.486145
0.006953 3.146658 1.543324
-8.210153 1.417949 7.091793
0.437218 2.988652 0.938723
0.009427 3.158023 1.698249
0.456823 2.978266 0.831435
-6.719272 1.301936 5.457044
-0.655190 3.638983 2.090852
0.620687 2.871467 1.200802
-11.263531 1.863201 7.230631
-3.582830 3.714404 3.940906
-10.694402 0.963332 6.258411
-5.217739 2.326379 4.511259
-5.166966 1.030836 3.525180
-5.552275 2.004117 4.691314
-11.188945 3.996473 6.125589
-7.107341 0.374633 3.290659
0.458569 3.244831 1.107185
-6.823938 0.154649 2.962599
-5.594235 0.863390 2.332762
-8.231606 2.475545 3.257053
-7.204086 0.032266 2.385858
-1.415282 3.723023 1.267818
-2.632053 3.896121 1.311694
-8.385434 0.849701 1.802491
-7.963387 0.963699 1.641647
-2.530721 3.514282 0.939189
-8.068404 1.301609 0.875690
-11.224936 2.510778 1.213505
-10.785693 3.128086 1.307536
-9.816909 8.195673 0.990680
-2.267787 4.035488 0.115142
-5.496977 0.353742 1.777006
3.491602 -4.685678 -3.197337
2.991066 -2.593615 -2.048199
13.063027 -7.047740 -9.648228
-5.627587 2.962102 4.993082
3.209053 -2.832873 -2.184474
-4.421611 2.213950 4.108657
3.355158 -2.806223 -2.258938
4.866713 -5.847005 -4.898973
3.273769 -2.922559 -2.240075
5.307358 -6.117519 -5.147284
-17.926371 4.040682 9.865702
4.940980 -5.968126 -4.831735
-7.441724 1.966965 4.406838
-2.815577 1.044283 2.073250
3.097577 -2.669935 -2.031246
12.913822 -7.729813 -7.484466
17.145668 -12.898868 -11.719421
3.253948 -3.033153 -2.375585
-1.161795 -0.515111 0.706947
3.281308 -2.931737 -2.245187
-21.426357 13.210919 11.517474
-1.731455 -0.664006 0.609384
-1.211729 2.018141 1.646495
-3.562462 2.237083 1.773944
-1.495118 2.547454 1.559091
-0.874034 1.146154 0.802936
-1.802813 -0.357691 0.255583
-3.642789 1.260899 0.015077
-3.409903 3.562009 0.432958
-4.145644 0.285237 -0.605937
-1.740010 0.542075 -0.750696
