ply
format ascii 1.0
element vertex 443
property float x
property float y
property float z
end_header
-23.560302 3.689902 -6.606685
-2.521032 2.686053 -1.108572
-5.822640 3.869862 -1.642536
-11.380732 6.206083 -1.159367
-3.227139 1.419764 -0.050494
-5.533670 0.049708 1.446740
-2.719277 4.583048 1.799227
-6.367930 6.084348 0.968071
-7.454712 3.888793 -1.293342
-1.264147 3.712384 1.264898
-8.647369 -0.549179 -0.147183
-18.304557 2.586842 6.702383
-1.904099 2.076579 1.693729
-14.706393 1.827669 -0.078751
-20.418240 -0.077312 2.976300
-11.793169 2.743741 0.905728
26.906351 6.604073 -17.031541
-14.506448 2.520263 10.874739
-3.508178 1.438272 1.601906
-5.460768 1.859809 0.084915
-38.008008 -7.432383 23.881875
-4.028973 2.848416 2.665420
-7.143867 -0.301947 3.067809
-8.310836 2.653537 1.137916
-28.089263 4.390800 4.738844
173.359501 6.799155 -60.540055
29.204473 2.527712 -4.379769
-17.374528 6.110379 -0.333956
-8.519842 -0.669280 5.249865
-4.541958 3.461587 0.065589
-8.071382 2.738341 1.813675
-6.127213 2.530316 2.178963
-4.636895 3.676802 3.023505
-4.619074 2.289392 -1.252301
-9.833553 3.784660 4.472542
-8.019295 0.704325 -0.787571
-5.433210 -0.111317 -1.991735
21.423529 0.422325 -7.945768
-3.206977 5.094790 1.569694
-3.197341 5.083751 1.567359
-6.904788 0.320997 4.565777
-2.976585 1.764077 1.149897
-3.972497 0.197441 2.426997
-12.977716 -0.506992 3.986974
-1.293575 3.079757 1.626755
-6.070186 3.417745 2.940109
-5.666649 1.535411 -1.189011
-8.601191 4.629095 1.998517
-3.314524 5.119923 1.470090
-10.865642 1.462509 4.926734
-1.831218 2.165121 1.678025
13.973318 3.844573 -8.983150
-7.194618 1.626660 -1.163967
-7.688774 2.978684 1.654659
-7.155448 2.363509 -1.025181
-5.616216 1.232228 3.963374
-47.857449 -2.756623 20.274723
-2.802678 2.027944 0.410276
-1.702391 3.216358 0.765704
-5.794213 4.607578 1.059420
-11.787101 1.203453 -2.626839
-5.101459 2.177107 2.876982
18.130815 3.362590 -8.316558
-4.706606 1.690413 2.470580
-3.287803 4.135086 2.179244
63.579494 -2.963905 -13.759541
-5.208768 3.224379 -1.083514
-3.916310 4.365355 1.420792
-19.868991 11.723298 5.804185
485.156366 -86.589720 10.856278
-4.387384 5.924837 0.776786
-2.676094 2.265657 0.238072
-7.298968 1.707913 -1.856956
-27.238731 -1.633575 13.675603
14.908046 0.515071 -5.280823
-6.108041 1.731060 -0.548636
-8.988419 6.074707 0.135879
-15.300143 2.603396 1.047441
-4.307971 4.318121 2.129972
-38.396416 -3.538829 3.231014
-3.917706 1.978823 -0.179013
-1.731895 2.778188 0.848916
-7.496657 1.372695 -0.889337
33.496881 -2.081963 2.629720
-3.440002 2.876041 1.349795
-4.678069 5.566632 1.867581
-4.452535 3.214498 -0.587218
-6.926803 3.341314 2.910554
-5.984731 -0.584174 -0.054636
-1.949120 3.098967 0.050749
-4.256127 4.840753 0.573394
-7.564405 3.384091 0.514764
-3.392892 2.407357 0.488217
-10.881671 2.284426 0.230225
-15.793116 4.036767 0.709525
-3.232677 2.089432 -0.781900
-2.264874 4.207771 1.783301
-26.711479 2.879888 -3.548580
-8.442937 1.065790 4.034904
-7.422333 4.476773 2.231025
-30.881988 -4.583890 12.323671
2504.074723 -159.672771 -48.543281
-10.700230 -0.386561 4.943917
-16.948516 5.767677 3.258282
-5.737083 1.711399 0.162648
-6.190532 4.379875 0.986613
-3.058437 4.380912 1.901256
-25.894191 5.583273 -6.434727
-5.406105 0.480480 2.746334
-5.231494 0.401188 0.663684
58.496189 -7.339519 -22.192227
-6.107469 -0.405165 2.034864
-1.550652 2.728177 0.567277
-3.020000 2.556811 -0.834368
15.519680 0.776088 -7.727360
-4.785689 2.791035 1.880942
-4.841294 1.336070 -0.986054
-3.747897 5.369356 0.028803
-11.409065 4.622555 1.592709
-2.082309 3.905557 2.068272
-39.538198 4.161277 11.151112
-22.623518 2.355014 -1.954780
-11.889757 1.504781 -0.371186
-8.594973 -0.440616 2.645577
-3.835825 2.033367 1.512264
-6.811942 2.135588 -0.161340
-4.360187 2.245952 0.835624
-11.362609 4.595723 1.599995
227.753698 -13.322949 23.341895
-5.556730 1.671134 2.799102
-45.087912 -0.871542 -2.437869
-6.679746 4.700825 4.333113
-4.740629 4.298628 0.717361
-17.954555 3.914621 0.580432
27.558715 4.760635 -10.233565
-1.528305 2.523844 1.093931
-4.718320 3.157400 0.750056
-1.542707 3.419945 0.126366
-5.340442 1.662147 2.570402
-4.725276 4.294523 0.720002
-8.319834 3.032927 -0.593799
-4.552775 0.315021 0.189250
-12.381104 3.234387 -0.113039
-4.404241 1.400452 0.098339
-11.032822 5.457139 0.372571
-3.876461 2.482769 -0.086661
-3.761364 2.691880 -0.092097
-2.835524 4.047148 1.128757
-1.873056 3.188572 1.154262
-2.816532 3.758025 0.265673
-1.936021 3.800322 0.325472
-1.393212 4.124439 0.858446
-5.387472 0.173533 2.607002
-128.791265 46.974192 14.862080
-7.969122 3.633942 0.467791
-1.107852 3.266884 1.049502
-1.618163 2.936398 1.227971
-4.896721 -0.228106 0.020195
-6.692016 3.490229 -0.607184
-32.893636 14.737878 -9.500392
-23.459073 5.651279 8.393802
-4.716849 0.823924 1.213769
-3.114637 2.809499 1.783723
-1.358614 2.941013 0.874547
-3.055201 2.996159 0.677173
-10.627446 2.819668 -0.424552
-1.903060 3.924588 2.402588
-2.044081 3.131114 2.687073
-48.380988 20.785248 6.594532
-28.543307 8.452111 3.811307
-1.353525 4.033830 0.980112
-7.088706 0.774479 3.982951
-5.324519 0.621702 0.675925
-4.976581 -0.388101 0.298959
329.841630 -112.314820 -43.586465
-4.784441 1.843349 -0.262419
-1.471621 3.614404 1.343323
-10.797626 5.660145 3.821756
-31.382177 6.033205 18.360596
-9.631967 3.948945 -3.041738
-4.764619 1.733960 -0.443830
-7.532073 2.787320 -2.487906
-2.845619 4.504565 0.222430
-7.936641 3.834575 2.775957
797.622294 -289.395312 -78.798977
-1.140798 3.125140 1.798585
-2.222605 4.223195 1.410514
-1.339956 2.885338 1.422035
-3.814744 1.041835 0.980561
-3.075798 2.155888 1.025239
-1.258697 3.541451 2.034112
-1.664776 3.453158 0.161498
-1.221258 3.717545 1.747188
-3.276668 2.712600 2.190370
-4.471465 -0.027315 2.310427
-5.893886 3.925778 3.541984
-1.410387 3.438640 0.840188
-5.360204 5.118284 2.413627
-1.158722 3.517294 2.297069
-3.901933 1.532765 -1.354513
-3.708439 2.943311 1.437884
-1.524012 3.273727 0.606928
-6.089938 3.514556 4.782390
-3.281370 2.701598 2.184601
-5.340784 -0.392567 0.253274
-1.120424 3.663182 1.841881
-4.674664 2.311130 3.527270
-2.446820 3.850165 1.661469
-2.783321 2.115034 -0.969154
-6.623578 2.176786 -0.054091
-4.897322 3.104411 0.326144
-57.976394 12.431937 34.150524
-2.320686 4.504246 0.597000
-28.877392 10.657685 9.261759
-3.372180 4.181932 2.428703
-1.184063 2.992746 1.552806
-4.690792 2.096018 1.018228
-3.322243 1.827271 -1.110347
-5.976158 4.985469 2.547658
-3.812643 0.954009 1.636614
-1.926289 2.439737 1.061181
-1.587276 3.241277 1.401284
-3.516875 2.686794 2.577991
-1.228652 3.906971 1.183043
-4.628864 3.314210 -0.011532
-4.402753 2.439406 0.336350
-5.041403 -0.214231 0.566260
-8.103053 6.500252 2.319077
-1.728232 3.042093 -0.108109
-4.116696 0.619227 1.339314
-1.619629 3.794334 1.569350
-1.951150 4.245521 0.836049
-2.631014 3.842737 1.683086
-3.719127 2.947355 -0.494976
-3.621948 0.977760 1.469996
-4.987781 1.887988 -0.888476
-5.596059 2.669360 2.228707
-6.191459 2.699604 1.608106
-1.655754 4.321033 0.497843
-3.569443 1.733092 1.157542
-1.775532 4.152188 1.138939
-3.995200 1.902249 -0.450425
-1.399021 3.629651 0.697439
-3.470662 2.038854 -0.819168
-3.929799 1.424369 -0.408661
-2.640846 1.727990 1.120209
-11.763518 6.676445 5.464508
-1.580007 4.024525 1.080622
-95.467375 34.809784 5.800803
-1.735095 3.402756 0.907168
-32.341082 10.823589 9.410266
-31.708209 10.581294 4.306110
-1.160448 3.656598 1.736256
-1.716206 4.174892 0.916224
-4.174503 1.551361 -0.338764
-1.083255 3.021195 1.380083
-5.266927 1.421116 -0.535859
-6.461838 2.307892 0.622812
-4.695934 1.843208 -0.092789
-38.724716 13.492524 4.378629
-3.466591 2.041104 -0.826117
-1.228410 3.859701 0.499714
-5.323703 4.478057 -0.266507
-32.022112 7.234083 14.371230
-1.147254 3.085371 1.658522
-5.330964 4.622417 0.053777
-4.521832 0.669484 -0.393902
-21.616836 7.180539 -1.703046
-1.230929 3.329591 1.644427
-3.243563 3.161403 0.855907
-2.120618 2.757909 1.589251
-5.432914 3.431077 -0.705262
-4.441771 4.345435 0.634840
-6.920958 3.126020 -0.297090
-3.793329 2.751563 0.068745
-2.560465 2.749895 1.038392
-1.874137 2.632683 0.126635
-0.985806 3.364229 1.939969
-6.275364 3.858696 0.465946
-2.930520 2.584497 0.895161
-2.705037 3.073173 1.641411
-13.943857 3.849725 5.691541
-3.551797 2.505745 2.164586
-3.645975 0.504321 2.130306
-6.485905 3.292547 -0.751717
-6.480786 3.295288 -0.758556
-5.387235 2.365953 1.437799
-4.767286 3.133488 1.759045
-1.297056 3.678169 1.058693
-11.811276 6.529027 0.456968
-2.016965 2.480444 0.390917
-4.817315 2.166560 2.285515
-1.238809 3.765095 0.343087
-5.691651 1.002114 -1.641775
-1.525838 3.190887 0.240612
-12.263626 3.608734 2.792584
-39.053915 19.131381 -2.687334
-4.564533 6.660979 3.358170
4.052422 -5.455741 -3.881210
-68.870779 24.645787 13.186347
-3.262211 -0.325904 1.873045
-2.237528 1.769157 -0.493295
-5.131953 2.683971 -1.174973
-0.658930 -0.163985 -0.443349
-2.759145 2.847797 -0.541344
-3.256101 -0.330242 1.813376
-1.242592 0.633919 -0.832974
-0.904708 0.429899 -1.130631
-8.416382 3.717552 1.863764
5.122970 -4.989406 -4.093287
3.619363 -8.795559 -6.452305
-1.409055 1.188933 0.184640
-2.878356 -0.843347 0.746224
5.747405 -3.806990 -2.288711
-1.150667 1.046251 -0.474285
-143.508462 70.519163 -17.771594
-3.379504 0.020989 2.193832
4.579884 -3.740961 -0.616226
-1.212279 -0.022893 -0.140307
-2.000583 1.059450 -0.213210
-4.992806 2.657530 0.678520
4.594184 -5.781230 -3.202538
-6.387518 4.602131 4.381522
14.632486 -11.568147 -8.370216
-1.244682 -0.174329 -0.371441
-2.639298 0.327659 0.696583
-2.910772 1.181771 -1.162306
-3.168809 1.996460 0.244350
-3.496437 0.246246 -1.555749
-1.966919 0.964673 -0.503514
-1.761977 1.977017 0.961006
-2.642873 -0.120954 -0.461537
-1.417033 -0.091878 -0.221456
-1.746569 0.328892 -0.542372
-1.741956 0.003546 -0.605685
-2.405856 1.357809 1.786143
-2.332088 4.279310 0.869804
-3.394266 0.031959 2.183389
-1.308121 -0.124114 -0.764096
-3.178726 0.760918 -0.622445
-8.927093 2.285634 6.005832
12.228886 -6.253873 -5.176270
-6.582559 2.005432 -0.083951
-10.047660 0.670568 7.839212
-5.263343 0.886213 -1.510720
-1.105363 1.292758 -0.174827
-2.961102 1.903410 1.688530
-1.611780 -0.404004 -0.438252
7.495290 -5.327067 -5.648717
-2.033900 4.877372 2.082982
22.936354 -20.990727 -16.080910
-3.045309 0.148058 1.038503
-4.096229 -0.020077 2.709101
-15.056498 5.801108 5.320016
10.767872 -12.097710 -9.030314
-2.182382 0.135589 1.361840
-1.004772 -0.339413 -1.172688
-1.033580 0.405548 -0.087490
-4.888215 1.007043 -0.565979
-3.378907 -0.290994 -0.885346
-33.822335 14.951352 0.830152
27.633584 -29.824710 -24.307639
-1.188276 1.265070 -0.036527
7.963663 -5.173022 -2.094472
-2.195148 0.043356 1.316032
-1.764979 2.254182 -0.305207
-1.687700 1.332157 -0.440797
-10.269195 12.779585 13.522367
2.843199 -2.015387 -2.735791
-3.331235 2.312241 2.701870
-1.763208 1.025302 -0.297430
4.184542 -2.537631 -3.804999
-5.135546 5.882240 -0.776330
-1.528298 1.365122 -1.047687
-0.874058 -0.066637 -1.021010
4.141753 -2.353064 -5.244919
-2.628160 2.645919 -0.403573
12.556538 -5.898959 -2.932476
-1.494157 0.736144 -0.167075
-3.547137 0.653079 0.062280
-4.587220 4.338846 1.703858
-3.197668 2.207239 -1.148727
-2.271475 3.839040 1.767914
-0.858164 -0.394352 -1.103005
-0.966605 0.655463 -1.105086
-1.043972 0.438357 -1.319225
-5.007000 1.379369 2.810828
-1.040360 0.634161 -0.943691
-4.646018 1.437675 1.080694
367.857674 -382.070937 -416.773143
-0.974213 1.071339 -0.222933
48.097862 -26.748157 -12.986003
-1.594963 0.178732 -0.556703
-0.641240 -0.459722 -1.182328
-0.909348 -0.032512 -1.061779
-4.848284 -0.093883 3.275777
-3.242413 2.545457 1.973521
-0.646138 0.415418 -0.569650
-2.092111 4.815089 1.913833
4.545600 -3.399431 -1.795381
-10.781160 5.370370 8.129736
5.427926 -2.696203 -2.158474
-1.028301 0.449559 0.013210
4.021580 -5.135706 -2.850700
3.322998 -2.487898 -2.823584
-1.062435 0.023264 -1.199472
-1.438630 -0.244148 -0.141237
-1.390424 0.951005 -0.969640
3.139831 -2.275506 -4.442102
-0.524074 -0.642691 -1.225976
-1.764260 0.868828 -1.114924
-1.464105 1.212199 0.506483
53.801650 -41.692279 -15.677542
-1.812293 -0.468271 -0.338948
-3.388102 1.360819 2.049321
5.282812 -5.360046 -4.689566
-3.950916 1.509165 -0.310647
-0.521536 -0.475793 -1.215705
-1.734648 0.409889 -0.559192
264.282321 -167.304461 -173.224627
-3.878239 1.869930 -1.300469
-0.972337 0.802570 -0.414120
4.807618 -3.500882 -5.181400
4.021774 -4.182862 -2.724584
-2.040888 0.591065 -0.063263
-0.901046 0.955189 -0.758734
-2.866714 2.176069 -0.272631
-1.310023 0.284583 -0.286103
-1.647283 0.349924 -1.352818
-6.965440 4.917660 2.108938
-5.364729 0.142418 2.787012
-2.446501 0.938045 0.150538
-8.158672 9.777104 5.087037
-1.335855 0.397400 -1.265249
-2.912622 0.376024 -1.452772
-2.891045 1.702211 -1.142682
-4.434374 3.140742 -1.472306
-1.695534 0.328837 -0.912343
-0.827242 0.000679 -1.015606
-8.905783 3.395735 2.147596
-4.707838 5.749689 -0.820257
-9.299113 3.515654 2.283638
-1.284140 0.681430 -0.746995
