ply
format ascii 1.0
element vertex 292
property float x
property float y
property float z
end_header
-0.117249 3.466668 0.640501
0.435162 2.383675 -0.541254
-1.204764 3.628138 -0.690853
53.357220 -2.578080 -31.773065
-149.086402 -4.451845 97.331628
-23.056867 -1.068469 16.951363
8.315038 -2.174109 -6.420631
5.352105 -0.526671 0.856002
6.943535 -0.254046 1.096594
-2.005281 2.586291 0.163247
-3.053035 5.432375 3.153420
-4.868700 6.066571 0.300308
-5.063712 2.077887 0.389826
-4.800119 4.305904 -0.933204
-2.887175 3.303164 0.880849
6.183431 -1.030585 -3.932575
-1.201998 2.827468 0.192083
-11.162181 1.533164 -2.395139
133.020975 -124.327549 -128.316776
396.167215 -57.314664 -321.447256
-3.197749 4.723710 0.106391
-9.528736 -1.742136 3.955399
0.521141 2.313086 -0.513761
-6.027363 1.928483 6.037668
-4.046764 2.381222 1.105997
-0.717098 3.075392 -0.303190
170.114832 -180.483166 -165.195478
-0.576953 2.908906 -0.489330
18.670229 -1.279897 -10.467225
-3.315368 6.239326 3.693300
-2.303774 2.858550 0.905771
-7.056475 1.580934 -1.513381
-4.833698 6.042285 0.476064
-17.167443 16.377223 17.820234
-2.107137 4.632822 3.669086
-112.309648 -12.151708 23.073984
-8.076000 3.253663 0.959479
-26.606086 9.270812 -1.623082
-0.453187 3.105700 -0.518570
-5.132928 4.557761 -0.417282
17.335668 -2.479668 -13.545962
-5.488766 4.525713 -0.395353
-4.774238 6.007785 0.477623
-0.168692 3.533449 0.753433
-8.682484 2.308896 7.965934
-5.357008 1.201739 -1.152483
-11.538650 -2.886826 9.191081
6.021096 -1.406250 0.462708
29.830984 3.178220 -7.756962
-5.464113 0.903061 0.151903
-8.361678 4.418420 1.989902
-0.255627 3.287380 -0.294081
-7.162616 2.223371 -0.166759
-4.688203 4.896785 -0.035832
-2.626699 3.225447 -0.018332
-4.898765 -0.856637 3.436238
1.500333 1.334938 1.390826
3.253599 -2.075525 -0.409705
-0.721375 3.080257 0.898279
-2.929754 -0.964827 0.483853
1.285680 0.260397 0.327971
1.423204 1.487542 1.141889
-3.572633 -1.046007 2.576182
1.619679 -0.514494 -0.089252
3.239475 -1.485112 -0.528132
-6.292229 3.234281 -0.128115
3.196393 -1.560879 -0.614273
-6.635890 4.865861 0.443400
-3.744859 -0.006829 3.969282
1.494853 -0.488325 0.839121
5.007418 -2.794964 -0.040482
-8.172818 3.842149 1.395069
4.251321 -1.471190 -0.863842
3.432900 -1.448298 -0.656233
3.150993 -2.118259 -0.544473
1.324714 -0.389205 0.990207
1.510179 1.258325 1.538813
4.834209 -2.961439 0.500194
-4.195761 11.698136 -3.410048
8.353211 -7.524428 -6.079837
-3.372927 -1.162498 2.738150
0.824058 -0.342321 0.355732
4.103001 -2.725269 -1.182777
-2.492225 -0.923517 2.452896
4.594103 -1.769107 -0.878898
5.769964 -3.984495 0.821585
-3.223813 -1.195593 2.722291
-0.579658 -0.337766 -0.195313
-3.493447 -1.146572 2.392412
5.220766 -4.632671 -2.192503
25.353447 -14.283200 5.882452
5.753616 -4.381820 -3.552095
-5.025167 5.993816 0.579837
-3.742095 -1.192428 3.833097
0.849791 -0.048768 1.435139
-3.033031 -0.973762 0.111254
-3.296586 -1.073558 3.776640
-2.910692 -1.026218 0.438782
-3.959056 0.172904 0.157033
3.869282 -2.626665 -0.202418
-8.135502 4.242980 1.560895
1.514756 1.341555 1.558900
-4.643063 -0.914999 0.555284
1.239973 -0.421936 0.883234
-6.709579 4.852212 0.375956
-4.600470 -0.568278 -1.529509
-3.371273 -1.063729 1.547739
5.490742 -3.206212 0.320287
1.305455 0.512035 1.362621
0.309110 2.968193 1.430674
-4.772046 -0.096243 -0.598822
-4.389608 7.316764 -2.736178
1.490178 -0.268229 0.913855
-8.879767 4.827254 2.216377
-4.072452 -1.105491 4.249062
0.323135 -0.627704 1.326459
2.066886 -0.936747 0.089607
1.394407 1.101816 -0.152536
27.986373 -1.915932 -10.349745
-3.051657 1.969215 -0.893910
-14.346557 1.938829 12.267899
-10.714809 2.732016 -1.386168
-0.363472 3.198703 -0.359419
-6.028557 4.862287 0.441700
-3.915371 0.319755 0.019494
-4.923428 -1.043051 2.514957
1.501242 -0.256989 0.929333
5.738421 -4.381946 -3.498911
6.910836 -3.719084 -4.018625
0.722148 2.194877 1.241467
-6.220881 4.515807 -0.015040
1.106546 0.063109 1.309447
2.782413 -1.248785 -0.435584
8.743503 -1.480853 -2.584944
-4.926711 4.661189 0.500173
-5.999477 4.574472 0.358106
-0.615057 0.128764 2.491380
1.561850 0.665711 1.264622
4.567133 -2.963742 0.454975
6.803446 -4.227826 1.056658
2.792826 -1.652401 -0.101848
-3.138943 -0.904501 -0.726598
6.050856 -4.964470 1.027329
0.873715 -0.302315 1.233699
-3.238744 -1.197538 2.175935
-2.109337 -0.721906 3.126810
2.081979 -0.177845 0.107241
1.300768 -0.487837 0.948104
-0.287601 3.002977 -0.004489
4.428944 -2.798865 0.409882
-3.961719 0.306170 -0.772354
-18.962083 3.928974 16.019773
-6.119481 1.900466 -1.108744
-0.650465 3.131130 0.145069
-9.168794 4.659118 2.176548
30.944211 -2.853197 0.026052
-6.223421 3.950817 0.239316
-0.757054 3.262810 0.028565
-5.059857 6.211792 0.542522
-1.213698 3.649217 0.147536
1.675174 -0.435362 0.736961
-7.836415 -0.032864 4.720269
3.417943 -2.550394 -0.502874
-8.292509 7.389151 1.779353
-2.150118 -0.392201 2.742080
-5.193166 4.845354 0.023940
-2.280385 -0.454990 -0.550861
-102.782242 136.141411 -30.331332
-0.988796 3.282106 0.027210
1.479638 -0.273632 0.933354
-7.995393 4.168367 1.501867
-4.035323 0.362803 -0.774516
-9.728721 1.760327 -2.122951
-0.685358 3.117600 -0.123613
-4.364361 0.498635 0.104404
-1.389189 2.327572 -0.676522
-4.348723 7.512447 7.856254
-3.201887 2.063500 -1.015620
9.364703 -8.805347 0.776723
-1.220143 1.610676 -0.547209
-2.986919 2.082715 -0.660760
-13.746546 5.792004 -2.257715
3.556460 -2.189739 -0.252445
3.389977 -1.688468 -0.676678
-0.125516 2.935937 -0.151093
-0.650452 3.006330 0.084480
-5.831585 4.552415 0.087520
-0.457130 3.318353 -0.152458
3.554518 -2.362737 -0.307050
-2.904691 -0.946550 -0.205383
2.317462 -0.720883 -0.293698
-0.310084 3.047520 -0.000641
-2.998577 -0.936440 -0.384719
-4.376665 -0.428585 -0.204725
7.949265 -7.535814 0.124787
-3.937455 0.219295 -1.078876
-0.421934 3.096421 0.129604
-8.509585 3.343490 0.990467
-8.825555 3.312302 1.992487
-2.985793 2.150429 -0.514128
-2.694180 1.933494 -0.812571
-8.414072 2.379164 -0.195696
-0.566849 3.289575 0.078787
-4.881869 5.050349 0.242817
-4.635632 0.915760 0.303154
-0.354658 3.194255 -0.354632
-0.695198 3.094159 -0.245742
-3.684161 -1.210694 3.948253
-0.545916 2.995934 -0.221651
1.345735 1.483756 0.731421
-4.649487 -0.173850 -0.598821
-3.113208 1.960467 -0.657535
-3.145882 1.648433 -1.047198
5.576700 -3.747937 0.037520
-11.661849 2.948123 -3.050962
-3.152695 1.969123 -0.663070
-0.373797 3.219881 -0.355324
-2.847845 2.434573 -0.970544
-3.125762 1.947214 -0.645937
-3.690441 -1.226680 3.971151
-0.687208 3.106469 -0.255381
-2.943951 2.421651 -0.779393
-8.832897 3.283503 1.985624
1.996393 -0.646965 -0.151031
-0.708938 3.146442 -0.243805
-3.785944 10.984182 -2.200994
-5.156261 4.828325 0.031708
-4.713332 4.983992 -0.058098
-2.823010 2.254319 -0.702023
-4.707712 -0.193813 -0.606767
-2.841125 2.272991 -0.700093
-4.694659 0.104479 -0.583527
-2.757034 1.914723 -0.422948
-3.505158 -0.193471 -0.289218
-0.478864 3.167918 -0.081398
-2.661479 1.890676 -0.888481
-2.678760 1.922660 -0.913354
-4.116690 1.969118 0.841908
-4.675663 4.868301 -0.002211
-2.711215 1.950463 -0.920498
-0.377599 3.067021 -0.048958
-3.404322 -0.559524 -0.353803
-0.484093 3.163845 -0.240650
-8.434233 2.421703 -0.159423
-4.730430 -0.310730 -0.593948
9.735228 -5.419765 0.196248
-4.761844 -0.313476 -0.599585
0.484323 2.539974 -0.618785
14.786908 -7.694512 -11.963561
12.898673 -4.340878 -2.692040
-54.973112 45.624821 33.582686
-7.056086 -0.469511 3.836528
-12.222318 3.273066 -0.606490
-19.543125 4.090927 2.881524
-5.334484 0.868460 3.388321
-15.076902 3.461225 9.282516
-7.704344 4.980941 7.562494
-23.483673 5.735876 13.833823
50.764184 -25.551249 11.196348
-25.097090 27.502348 20.030891
-9.671604 10.510482 10.294417
-3.981292 1.506309 0.565903
11.477047 -4.712707 1.925010
-5.794142 2.901911 -1.890145
-7.290806 -0.675362 5.383940
-7.069803 2.308082 4.777224
-7.956556 -0.285217 0.430717
44.960193 -34.248312 -40.870957
0.802119 3.445411 0.975256
-5.187608 2.797019 2.708221
-17.764117 2.499435 2.778602
-9.555203 8.107290 -1.113280
13.923240 -7.700380 -11.212413
-5.856881 8.321402 7.901844
-3.039872 3.141562 -0.727584
-4.542923 1.337114 2.899835
-114.626654 179.740357 131.802508
-0.476764 3.113551 -0.186413
-5.147455 5.579643 -0.528132
-1.838894 5.127959 2.239873
-2.763159 2.737679 -0.829917
-4.722061 2.047885 0.031559
-4.925560 2.800018 0.668411
-0.100025 3.534349 0.877117
1.060094 2.068210 0.070552
1.166302 1.772347 -0.913696
-7.247452 3.444167 0.591068
-5.949324 1.916979 1.466945
-4.758927 4.929722 0.008860
-8.053015 0.224503 -1.894395
-1.867678 2.792604 -0.629211
-11.526066 4.883510 2.124423
