ply
format ascii 1.0
element vertex 138
property float x
property float y
property float z
end_header
4.782939 -2.948828 1.405937
3.617753 -0.605598 0.859448
6.186221 -0.995952 1.461422
4.142622 -2.205901 1.034310
-0.386295 2.918114 -0.204058
23.563377 0.326619 -16.477368
-32.639876 -3.844240 -5.218191
-46.119569 -6.588624 -2.294977
2.744574 0.890887 -0.208531
-24.899951 7.208802 2.206170
-0.415467 2.781294 -0.254910
3.154050 -1.076656 0.570560
-0.189929 2.785127 0.875978
-0.795677 3.258298 -0.631467
-3.375527 5.778929 -1.214607
14.981976 -11.629871 -9.334361
-8.964318 0.499898 5.430456
-7.325753 1.479363 -1.348348
-4.635766 3.110597 4.595701
-7.480177 1.257150 0.039884
-7.486345 1.267723 0.046874
-0.470036 2.720193 -0.247107
-9.682794 0.623122 3.289272
-0.510760 2.785632 -0.236582
-13.674359 6.284568 2.351965
-0.730927 0.188134 -0.555206
-0.009356 3.820673 3.221803
-0.686327 0.162351 -0.583018
-2.496962 2.186863 -1.177507
-1.979908 3.586764 -1.286738
-0.806120 2.712934 -0.050774
-0.709847 -0.043749 -0.556408
-1.707224 1.929801 -0.591581
-25.783231 29.770329 -0.044928
-0.220852 1.206938 -0.437534
-2.835327 0.747122 -1.001666
-0.692188 3.754133 -1.117589
-2.910514 2.285729 -0.674458
-3.201713 -0.504342 -0.233549
-1.332270 5.080126 4.610606
-3.563774 -0.163615 -0.344970
-3.173104 1.028493 -0.767699
-2.785012 0.643525 -0.971738
-3.136957 -0.527529 -0.260921
-0.657386 2.810629 -0.170631
-2.599830 -0.366305 -0.757534
-0.538274 2.820886 -0.337064
-3.171898 -0.514030 -0.205726
-0.710946 2.783532 -0.139809
-6.080740 1.920004 0.401618
-0.591964 2.815458 -0.180035
-3.131994 -0.511981 -0.167667
-8.957479 13.510317 13.281429
-0.708163 3.790800 -1.119986
-3.213788 -0.492648 -0.232429
-3.044118 -0.484765 -0.661569
-3.030572 1.024474 -0.549372
-0.693289 3.780352 -1.006757
-0.696493 2.786602 -0.253513
-1.719500 1.961113 -0.590091
-0.626298 2.822847 0.135251
-4.145484 7.213965 7.323515
-0.244920 1.295779 -0.120909
-4.154699 7.239299 7.409841
-2.734034 2.533800 -1.226048
-3.777713 2.489922 -0.439631
-1.756579 1.788771 -0.992062
-0.979269 0.638874 -0.694991
-0.459235 2.912078 -0.107954
-2.952014 0.658586 -0.970579
-3.835141 2.655743 -0.464979
-2.725749 1.473743 -1.101308
-2.747834 1.079624 -1.027211
-0.649855 2.798810 -0.249186
-2.838009 1.486193 -0.410027
-0.653943 2.779796 0.014674
-2.748527 1.701069 -0.440766
-2.821926 2.011172 -0.804399
-0.630091 2.796108 -0.164926
-0.532332 2.833297 -0.390574
-3.183143 -0.417551 -0.399598
-0.601027 2.812939 -0.241594
-3.086686 1.020202 -0.777578
-0.439266 2.887810 0.027963
-1.407527 0.751950 -0.767784
-0.587095 3.695932 -0.697855
-3.338404 1.264193 -0.632104
-3.111985 1.025993 -0.722882
-3.454379 -0.236101 -0.384814
-2.833679 1.816730 -0.693368
-0.490880 2.842178 0.180004
-3.196704 1.116481 -0.683590
-2.783400 2.076686 -0.978875
-2.920946 1.363171 -0.814354
-5.856930 -0.441888 4.989871
-3.060304 0.763933 -0.899467
-3.096259 0.941060 -0.777098
-3.101096 0.747660 -0.638400
-0.472240 2.860687 -0.254539
-2.864885 1.183250 -0.755182
-3.149170 0.809320 -0.967268
-2.747493 1.471723 -0.946333
-0.711316 2.864641 -0.037597
-3.054077 1.037921 -0.695981
-0.235159 0.815178 -0.127388
-0.680555 2.813212 -0.252090
-3.056432 0.917011 -0.804036
-3.056571 0.890395 -0.922805
-2.850449 1.287812 -0.713410
-2.703055 0.977300 -1.004222
-3.226313 1.262482 -0.639731
-3.117097 -0.491631 -0.418404
-3.329188 1.257851 -0.630043
-0.674798 2.773199 -0.270754
-2.931826 1.089535 -0.619346
-3.004282 1.213638 -0.584947
-2.148853 0.893627 -0.901102
-0.659891 2.784605 -0.232870
-0.242806 0.493559 -0.318051
-2.746892 1.608106 -0.714135
-2.894710 2.298094 -0.738611
-2.864017 1.194426 -0.754772
-2.711393 1.257669 -1.038514
-2.912598 2.137947 -0.730083
-2.729653 1.506171 -0.551584
-2.844340 1.184097 -0.747133
-2.898019 1.356184 -0.824553
-2.732932 1.354053 -0.593781
-2.705765 1.252294 -1.046213
-0.499128 2.898522 -0.059644
-0.495606 2.876982 -0.218083
-2.757547 1.554218 -0.553470
-2.981704 1.610334 -1.047703
-0.484445 2.848121 -0.079815
-0.496039 2.862773 -0.199079
-3.014464 1.227169 -0.949038
-2.853079 2.268881 -0.862681
-3.816867 2.058505 -1.212264
